ply
format ascii 1.0
element vertex 710
property float x
property float y
property float z
end_header
3.061620787239312 -6.001434108657303 8.908707784671593
0.566404329035507 -13.701063599197797 -2.0258155032498575
1.4839714797658168 -10.491949292900266 2.4627232575312235
1.6909707629960673 -0.8377704657260577 13.786580757655784
-1.2246222370700504 -10.200829753701013 -1.2317522888898715
-0.6619980094697304 -15.247472551127435 -7.089097787796492
0.9077967042043023 10.775349760423627 -10.899239999802608
0.5958083874319924 11.110577160646436 -11.047738398177298
1.1936428056890227 -2.4856647310410467 9.726410899309554
0.2530291873127768 -5.6816067531259575 5.152389647626025
-0.25314651694445284 -8.89220381729805 1.3052145637808557
3.602688414086244 -1.3423578739767337 12.317864204502118
13.584905607729796 -3.829576605094277 5.008217405105638
-3.3858321230501405 -14.04419869960196 -5.453268078324325
7.571093779340751 -2.3193081943808767 9.437073551837875
-5.129496959874748 -12.620196757493936 -5.368153456508646
1.2373368838825003 -15.652088035119542 -8.477434445979648
-1.3588051778431027 -14.365720842961194 -6.536939050012164
11.509507750676928 -3.2815426380426005 6.412469930481121
4.529059055364199 1.7389996887696333 5.044696503948853
9.5677502769554 -2.854523525757485 7.950749267755032
0.5286334600499278 -14.734825846273656 -7.893068979293828
2.4286157346883344 -15.203802034515602 -9.37769222903596
5.609453756196143 -1.8722847967360443 10.846451746675976
-1.2702302581479015 -12.059088064426938 -3.2447391403864123
5.817925600034146 0.9025051553891518 5.004138022615288
5.9192165230225555 7.211101823954162 -9.238989400017573
-5.383276440251466 -10.806180709351745 -4.844658970061626
3.0911080546035357 -16.073116473922752 -10.051136046125226
1.0697866362918123 -12.234839446430186 -0.6743741520808803
1.2806895957665752 -4.297552269683412 7.830828742171707
-10.083107032083344 -2.831650034186221 -2.1519714371905603
7.914279194904856 3.767853060125537 -3.656475861578551
2.0119453770358358 6.491079476581894 -2.1269183366803843
4.857685154870894 8.306024902227982 -9.841496340230929
6.974052773231925 -17.00591460120915 -12.925244205681874
-5.279223219246762 -10.999869627669097 -4.703377033738605
9.07456867611451 -17.583113179952438 -14.267961670386558
5.0495068005722565 -16.511007315524395 -11.476882503512684
4.306739253655809 1.7934692239432588 5.214295732940933
6.261254393069715 2.7636278869623667 0.6343181605165528
1.8120051329280764 -7.952530491781073 5.01836570197136
-9.0479552432726 0.1600520040788507 2.3969601426328198
1.283334783734425 -9.559105954367364 2.7908370901310837
-2.695419497787789 -4.783125018711223 5.4605892880279026
11.278680421213755 -0.24783584851000254 1.2741320741234294
2.4281014766953177 -7.658125656857545 5.530546094815786
0.990698037360552 -7.245354995180203 4.016167681726732
-4.824031216825403 -9.279988081540575 -2.3649800955275864
-2.7819707803577867 -14.564254792499725 -5.77689246764982
6.351771597717545 -3.9552291844473473 5.7251674050113515
-6.033249857136877 -10.59783257142622 -5.379296864584741
-3.711085798731354 -7.952834590032697 0.9038038644395902
-0.5271604425839673 -12.004996642295191 -2.8621171850612273
-12.501689073396564 -2.480492875263023 -3.1095710029204655
5.272569683623669 0.7384429918006871 5.415290446148232
-8.283494425422473 2.7924585590625455 6.512343193185659
9.193766127127866 2.90554031571496 -3.6884485760958685
-2.384668415980892 -1.5272259969992878 8.815706612267636
-9.522973556860327 3.974878829684753 6.056529794881878
-2.493338736718992 -1.3297388127373888 8.639716671389213
-1.5958056323752845 6.090894199313763 4.658500437678849
-8.019051998179886 -2.817301027032426 1.7039990714829991
-13.164603157445098 0.9965165114449502 0.7085636608639716
-1.9527780209621157 0.16486489057593276 10.96775725131856
0.5219610000586237 -8.901892976218486 1.6736865014838374
-4.911706524370081 -5.936186214167318 0.9060475170448955
-3.187013283509683 -13.732321467832502 -5.305297126916031
-9.377479676546166 0.04733489029261052 2.0415743427715825
15.186997151775175 -2.9341132846298805 1.891234081107914
0.2579060954838061 -7.406885763245239 3.2475815896431994
12.733317474905556 -2.8320516995982086 5.862208704259429
9.157624257767836 -0.33424049291015073 3.8780058190546476
1.2655357624986738 6.174636175879762 -0.6798770255532198
-6.223933252173904 8.635856307194391 3.473009554071587
10.096942957226423 -0.8891023956830226 3.1186400817337487
7.522884234714601 1.852379895505296 0.6394400277818888
9.57484032441908 -0.6785446088609671 3.6955713056832957
11.988078635708705 -9.57699961563149 0.024780503741006883
11.091939497833362 0.08531949395569227 0.630736983860622
10.775991157689726 -2.32524596470306 7.224593919555337
0.27354518920805054 -12.710802632854104 -1.6212177591299621
1.9047893747062856 -4.295624527826202 8.190863918420888
-11.187400663574152 -6.720149413040354 -7.12710067680029
-0.32697640273870204 12.125569234563946 -11.477644907358435
7.689005670678619 3.8259758002192727 -3.4990089901050756
12.081905865637669 5.333347717176868 -10.822084572646588
8.69800489935341 -0.24096248475113868 4.026219473874201
2.7116935164735874 -4.926868744338179 9.128985310319477
6.021213211541307 2.763691146699212 0.8772091485402165
-7.321456743241573 4.258391343824621 8.856280332663802
9.809519366815424 -0.8956951605919375 3.4582784119544074
10.55922115441834 0.5011785917172099 0.4942193836403566
14.753984121231403 -1.3974620288094035 0.2724453764788595
-2.6518952521544477 -14.792005465052183 -5.921306223685516
-4.10393256581878 -3.7264240584225496 4.032666205241506
-9.664548402716187 0.4563253715247855 2.2049144874501954
-10.449668913765278 -3.0306889727143442 -2.550387227500986
-4.9658517443697034 -14.314554945961321 -5.501794071166014
-11.633161297810258 0.6306530281182455 1.046260863934616
-0.7139341119452758 -8.642835778506866 1.4121536633813725
-7.199501332452463 -6.275405011786746 -1.100003741898693
-5.154902584510948 11.80263160718597 -3.623979864060415
-0.6351968579633599 -11.724760894878548 -2.5573817456469796
13.016897763316173 0.9660237622212727 -4.152302871748312
-5.075659661577783 7.6054408123699195 4.026165053738312
3.0602045173525796 5.513881976005091 -1.7558472651687274
-7.257348946184046 -9.459890557078126 -5.796974020668631
11.576772137904829 -0.10660372363483152 0.2251947831440993
-5.086654981958105 -6.893458002499279 -0.34231439124782886
9.959494668179788 2.514496755117993 -3.799098623665585
4.454019495141462 -15.623275262620536 -10.794255118872666
11.030529079602422 -0.976233795502858 3.11397307605808
1.296117240488096 -15.988899245470071 -8.51538025789611
-0.937587420182539 13.351834070273494 -11.804572262201162
6.038787452105246 0.5055511924253355 5.343086190037879
11.358082621444058 -0.13812353584622442 0.6793475364441095
8.728462598404827 2.7216747377375206 -3.2129958683259505
-5.871626205226093 7.315161476815936 5.270692640755244
-6.318068729955906 -3.2439862402661603 2.885560933430754
-12.945619116985512 -5.891943074551563 -8.217518822324072
7.669705082575193 -2.703047643622603 9.453042529498358
9.69756245752795 -1.0043208086974782 3.6524895257307572
-1.8488908286547014 -0.04821783294165277 11.073370576582763
8.781659477061188 -1.8653887257618964 8.799573128294186
-6.920984393332731 10.008662334148367 2.2487520490648856
-2.5143265207740737 0.47854341580063303 10.638266838337342
-1.565516439501547 4.405727711958568 6.855873653639504
-4.2240815844630895 -3.35952025115137 4.279509685584437
3.7833063937308573 1.799062555141902 5.729101357503093
-2.9929970143919173 -1.1225244102048666 8.403877409145833
-6.547396455611775 -0.386163209525481 5.904033778283722
-7.412918491039399 -8.285215473021259 -4.076653863721393
1.3842794305647526 7.742845547056223 -2.634831363288831
-5.550293429535333 -8.94519730525122 -3.0913379098945506
-0.80556253994808 3.153062919432144 8.67817202691613
-7.807334439648689 4.370673055407648 8.70358694094046
0.16911364322551217 -12.359067829147794 -1.8557475300983923
7.005667145957326 1.6986093321740479 1.1951259645438193
7.49161382722666 3.6217396508974655 -2.915222466287646
9.151827145645065 -6.654118353868357 -0.3410864147540418
6.043058574403162 2.4947098578444318 1.286833939070145
-12.689897505255088 -4.432259281422334 -6.060054716938885
-8.118169540834508 -5.513169393296315 -1.0973102073717451
2.8928335997761523 -0.357964384641147 13.227163811963397
-5.290496789161194 -6.4970997885425446 -0.1029268164195526
14.241752478057176 0.8913227608471044 -4.564662026856935
-6.701347344006181 -7.872496839980593 -3.4776811991191185
14.116502927202708 -1.7320614055904162 0.4106383398780658
-6.970166618498867 8.315803835574757 4.967841788952175
13.620159778890478 1.1943566133728267 -4.604756659437915
0.3773508233911858 3.765535772814419 5.645303112906918
-0.7556655489022872 7.487579216315269 0.16902901647996071
13.131898838919792 2.670623336609455 -6.451777801864874
4.297154553977185 9.545333968127476 -10.259687007086994
-1.6867045434874905 -11.755039559782857 -3.0977456809417645
9.404743309878116 2.4780778396075562 -3.352246819346977
3.375729361496658 -4.557233191184287 10.097592144091372
-3.9926101997854415 10.062475024483431 -2.5895503473241
-0.9130101043555554 4.753098852142779 5.316358502449016
-0.5260211289398355 3.427172918844064 7.232048759647621
-3.9357488695984486 11.638949694439937 -4.430848767289484
-2.8845786118148338 6.260484048679462 5.306608099984256
0.20258733324910988 7.876188415157968 -2.020823314386279
-4.718765798293338 -0.2637690183127889 7.386846125204879
1.8796558241943653 -8.16722079283286 4.873843612783621
-2.7024395466821534 6.126672725103378 5.454350394938761
-6.0306186465490175 11.436456229964929 -1.4021795517252365
1.2731700525147802 10.200954692579623 -10.39647783657038
-4.381810112708434 1.1928389942705457 9.434357629180642
-13.393920900816234 -1.6483474290954199 -3.0930682286318327
-6.410227390798415 11.432321609360514 -1.044345905832216
5.778168778379865 2.652714523659779 1.452578039537917
-2.6466887992766974 -15.116196810374287 -5.948807473439561
-6.891542143567768 -6.319198071997607 -0.8857285011921305
-6.166800867469748 7.077056853290941 6.170335506727549
1.703124014703511 9.305236489729928 -7.273853545324519
2.3104848400911475 5.085797886429034 -0.34452517129840177
-11.768611385228132 3.501783493240596 4.189437593961335
6.08007683854108 6.778615861868504 -9.108157907047657
2.165912065480176 9.290222789474365 -7.357759248913304
-12.328467111843933 1.2974238854795626 1.5162568820055202
7.670434089776929 1.4554037305566867 1.0117530642270676
-7.1192756193349735 -2.543105209484081 3.5259010090973666
12.866918132303406 -8.90068548489422 -0.053173765345510327
-2.2465153856013256 8.317048689052335 -1.8332430047246442
-4.094927152261865 5.744766218731988 7.9166762239149495
4.00619936321635 1.5963233245153727 5.538019321043637
6.542750104097204 2.6119001700484503 0.5296866357743116
12.628309287015966 3.9946867212185815 -8.745936820703218
7.507046424107594 1.4834303042453398 1.0506204336079572
-4.163946189001011 1.4863443313465015 9.968648458381432
0.5148522022844564 -8.539539803486093 2.1051534602237783
0.9038418549044823 11.161551602484767 -11.034927225962754
-12.418992819187629 -4.186596877044509 -5.675411459605089
6.846385977223017 -1.3375759701701182 10.250898234181113
-10.655854071163395 -2.6506361521424657 -2.3774530438146817
1.1347493367643844 -7.545755999013724 3.7898354796700295
3.730443832147335 -1.8214519962727915 12.260020786720347
-12.419356379578215 -5.543694558051825 -7.754526896543579
1.7215118553586022 -7.598602127700431 4.886380244966777
-9.441799152814317 0.9574996524167592 2.702491444179983
-0.8790868375835347 -11.970192454415109 -2.967384924333687
2.158801653745299 8.71962158788516 -7.1670523788014275
-2.1458961572589637 13.496388306345724 -11.340103818390434
2.126434155515383 4.848541185010056 0.8981330738220507
0.12060819134469014 8.142828263388823 -2.575443773860658
-2.190656231818507 9.367146933311645 -3.599817220756614
-4.709549544747461 7.480032522685862 3.914470984066422
-12.477870745785925 0.5574834574009442 0.6614441369479168
5.846888286411402 0.4727355602308917 5.382201936774188
-0.635621160606637 -15.490210421454375 -7.115125282108869
13.633689502779982 -0.3607042332883345 -1.7854888934757391
-9.057576037303773 5.598135824956619 8.22987168339252
-10.4188229340025 -2.118468032611381 -1.8217321558176958
-7.172682854740993 -6.921457154499963 -2.1522817326108123
-3.2484911592808374 8.77958733852725 -1.1627625408498694
3.2832291156801188 5.5080605004844045 -1.884776705606884
5.131039473302595 -16.87526412299091 -11.499412489898903
7.2004690832340685 3.8555486432027375 -2.6682298059408933
4.64089791073277 1.8201899269350759 4.869712312498054
4.8063528686370836 -0.9411373368206531 11.824697377936033
2.906477592818651 4.94347386529233 -1.1438761149129784
-4.714810224158857 -6.726637454261573 0.1863001509349127
-5.169980937980988 -0.5951019946902204 6.847697269747383
-12.453716183083404 -2.969367735356613 -3.9184053422298786
2.9618286190371066 9.725783680492865 -9.763576658534332
10.100769077583143 0.5634231335567307 0.8250168913004531
11.516647023090615 5.012306835241012 -10.772515793784377
11.611479543805393 -3.670047066306404 6.4319561898654465
-7.283375902953439 -3.271243874970454 2.543689257715272
12.484734193497697 2.355417747008465 -6.377460094925681
5.737008781836326 6.733005635459864 -8.799418704806339
-11.909129797342855 -3.8935493363695706 -5.268052116636913
-1.231045889679641 -10.604057434093164 -1.5563393340262437
-3.1271559881674507 13.189027082109247 -8.964566330556321
-6.0547859976967615 -3.2542313340855795 3.108773130165723
12.427765625459125 -12.419434655621592 -9.50806828754483
4.136825919824435 7.91603202825399 -8.231879853023354
8.28570137361618 1.4511323672046172 0.5456897361036809
-3.5220477000606807 13.137633845069177 -8.700457840604612
6.664117635058212 0.46575085550045764 4.975041569731378
8.270073108098776 3.5768687132965082 -3.763142181177787
13.684792724762236 -4.2220901614952915 4.984998692281262
-5.0156882041663895 -12.982192480259494 -5.23728290266088
-12.206071881633301 -2.5183161781837318 -2.925157106571672
-3.422560771465354 -6.9543257921804305 1.993664401949559
0.5985639165985202 3.5959493255888795 5.722645213529604
1.2486922765578001 -9.292690182388803 2.8824480636564687
-6.716291083711249 -6.064289174118162 -0.6306100611388248
-4.328989058699321 -7.231882197914282 0.3932521319633997
-4.247175477623701 0.10740914545525189 8.022153055927928
3.508307913295185 5.339669742982374 -1.789152180374455
7.160786301132547 6.505422684542321 -8.915381140870542
6.808609224969415 6.417179198051064 -8.68154446574779
-7.14373425134258 -8.045894927966206 -3.7087335995651762
-2.7833452353887242 6.391931623200381 4.907238014347668
-3.286236034595597 10.358631584003977 -3.8916583136624
0.5415952292990177 -7.303146765172139 3.6281478654642005
-7.749817377510841 -9.754739163296168 -6.299272335135074
2.4242227066488566 5.038201562079168 -0.517875429982393
-1.1589410944577316 8.62960570193625 -3.388754641331366
-2.2407558021155967 13.760248734813237 -11.971419104833997
0.24973601880628735 3.740676964772694 5.829872554187306
0.010392842943395075 8.012408699463752 -2.213577995938696
-4.7613836719745635 -6.912007009857005 -0.07307715557235615
4.362770993951452 -15.829932088836626 -10.72950675472045
2.7657232332826602 4.948540536785086 -0.9331564088945538
8.866513036227001 2.6516009851609406 -3.255429866177549
-6.435198625247213 -5.926434061308598 -0.4544816720284498
-5.156002618358209 12.04682119830261 -3.966761205824501
-3.7667233850207174 -3.7464052256203146 4.370680075766415
11.989414454601286 3.6573586247489813 -8.630405000597543
6.865219878750214 -1.74396074906345 10.172936208482419
6.990760305037244 1.5992751185882594 1.386507164492251
12.447673057449853 -0.10765122411459808 0.08924245990521808
1.1853369835758252 -2.8997815845700634 9.362938482708016
-9.224738807839513 1.0416007992209233 2.9195583409449144
3.148496849768414 9.595867276567404 -9.59902571021616
-1.1986728338093746 7.508427753318302 0.38647875818991323
-2.760472590162775 8.66028130482923 -1.622032181937379
6.232505526534482 0.5576612156546861 5.22243334840663
0.9423274911108561 -7.007030884208656 4.231801475290039
3.0110085496089547 9.877731685958809 -10.128645797049737
10.957401447068884 -0.04296309456361361 1.1121884460888276
-9.598376820508635 -3.3697339061104254 -1.3448673759093321
-3.075418934325991 12.595397968272472 -8.789862206951991
-8.576222271467708 -4.666399228447708 -0.7608865129595459
-3.650047571371181 5.200311257455563 7.7700289110582945
-3.718623797166812 5.749482380167778 7.729591299276211
10.974182656307008 -0.18254528961481797 1.4955795182836937
5.780652472762972 -2.2862407171082437 10.843268745434203
-3.4501997645752773 -4.367937833816758 4.462595200721769
10.841306547208276 -2.659465280172323 7.196087971690196
-0.7516253514490782 6.969936160254858 0.27611460945494243
-6.069891282657661 10.793709042125844 -1.2256875280190145
7.764016967765421 3.4598757428495324 -3.0537966463977586
7.691625696605219 1.9407184274408233 0.33171287592862436
9.236512234657862 2.439712076535882 -3.1610108217544464
-11.338466993310409 0.5196991873413034 1.1038421611178497
-7.546554349960492 -3.1549199925424807 2.2625370520891406
-10.435643094259813 3.290615568505155 4.986803235466134
-5.460155489936288 -2.8327979118647257 3.976865270174936
1.8900662557954966 -4.009409925783048 8.463847361328574
1.9426028110687399 6.338173061001578 -1.7758485696119548
-9.647573014138194 5.109028455091633 7.604827213372641
2.2462487583270265 7.011397558415282 -2.210524458737302
2.297879575293538 -7.943645065665004 5.411234555403687
5.259828268350874 0.5108953204990464 5.554048650352705
-8.062701739688434 -9.866634495354894 -6.55073319621778
8.120240735703515 -16.600863927939223 -13.324643131001963
1.059334818588324 4.262934231214659 3.3223794119794494
3.166744671541289 -5.222093176506883 9.302699030251354
-4.480463852811114 -7.538396085530291 -0.11782929687148959
9.418746944534405 -0.902522188718659 4.065645643776595
-9.97484697206845 3.677934444504289 5.615593064826047
1.1215796377181297 11.002511146911607 -10.92438092694301
1.8245072645102118 10.365266438818955 -10.788948195893157
6.468639762225925 -16.185164745715365 -12.222912363393167
5.015367892495191 6.612016607801543 -6.746314767312843
-8.023980388327624 1.4705166575778603 5.848366800948314
8.712481422641886 2.5666506434388894 -2.9084369613421117
-5.410981357828703 7.10503545075697 4.940030170334306
-2.938634446676779 8.980991256367 -2.0671426341594086
-10.0964216977767 -5.244098173304827 -4.271316622300707
-10.06915388350714 3.7888714131332835 5.706212842828721
9.154361253289652 -17.946661700834984 -14.32991874868761
-3.702640526955641 1.6646524662812139 10.174728277859353
-3.302024494913016 -4.056490008774146 4.986069248027218
6.133659320800519 0.8367744228142703 4.8488069982646085
-7.031362263107852 8.228301657993494 5.342753345758333
-4.921145258439692 7.630161360473199 3.8732142645305725
7.920672506369739 1.7585541325085359 0.5402233984748624
-9.879255631584092 5.271362348072156 7.738472427352531
-4.265324000913901 2.5907500685404137 11.050126691620427
-0.6456395255184123 5.317083108261962 5.1965565577645725
-9.513233399893231 5.4255926371218255 8.065426431164825
7.783002082167278 1.2713434226449627 1.1710009521254554
-4.02685866546758 2.31562549388988 10.730039250933455
-6.869691387742463 -7.114165728490117 -2.367615742824061
-5.356975883526999 -6.731717238189249 -0.3255748943671476
1.5318180341630885 10.21572309935886 -10.564778777393055
0.5699944425336239 -6.387897837455115 4.556048738425773
-4.549813634453339 0.7243554960487163 8.706780759248382
-11.697334207818095 -2.0711499892576333 -2.374955465348242
6.1214078231734135 6.29922617556558 -8.579683604076504
7.223818653829308 7.5718305326324895 -10.595302880269413
0.9231845096729577 -12.544963812658569 -0.8460783046433311
-7.223112697585338 0.17676995747665014 5.230637409131823
15.547806519841181 -10.304374336512037 -2.6747169776650996
9.473587775681898 -0.7719565431732973 3.882711527705566
6.238628069416783 -16.094639818525863 -11.98517960894606
12.855463953340532 3.9965974897148784 -8.931352907041868
5.5383943420432615 2.7986507187248417 1.720931063613806
2.5357757817078723 -4.612198915673975 8.638637688085353
0.08735354368737609 -8.864481988886228 1.5144967180936268
1.546333316404645 -4.238676325881214 8.0457330814767
3.2529209906588243 -15.732228525780783 -10.130991616199305
8.44539382158377 6.397569618674525 -9.967424232343555
-6.299630984913042 -5.620244658117244 -0.19100588138697458
6.348958253425613 -16.301719825406124 -12.129931519048013
-0.9549916835574622 -10.974478827824788 -1.8836638306854208
-6.472078886522602 -3.41553075000751 2.57165434669064
-1.525938070416308 8.520897506296997 -3.1337293464204414
-2.1316597791871548 8.341696285910542 -2.116276535220783
0.7168659105577683 10.09181485676618 -9.882286658238261
-4.1558918903945585 9.956510307918439 -2.1003325452534782
9.172257465674805 1.4493765572058923 0.2389800118232062
2.9162441801536922 -0.7766518150693522 13.15706210877848
-1.0665152349423985 11.761676921961492 -9.929496958098541
-10.671479140963966 -8.099117834403339 -7.48927821680839
-5.282536330023564 7.0924042889029515 4.718145759170883
-6.263114609632314 -0.25019641957983324 6.362188291528003
-14.728906597940503 -1.2553565229548984 -4.576379340812505
-0.03974145080722711 8.72488776163308 -3.4015302956267406
-5.357561017671569 -2.440233309961411 4.30357301692801
-10.788077252501731 -4.930996112302128 -4.8635931971592505
10.870158366731236 2.435851552952966 -3.9711682605206486
3.881688520373252 6.038544192995104 -3.908134020246706
-0.0679306549001446 12.561945879746974 -11.624737946433807
-7.366464973126472 -8.703090927787555 -4.762022290440912
3.990209567572391 5.997306512972042 -4.083618272426353
-4.4188180446533485 6.692107778072364 4.557599311312374
5.180957951902081 8.756835919025873 -9.892870498221384
-9.38606465622438 6.252208061398111 8.780909272207031
-4.049117715771895 -2.9151440469222343 4.749924034966375
-2.9969068278424884 10.866646168910368 -4.078948814786378
2.827605399314313 10.417774821528118 -10.853556007799511
-10.706581556388402 -2.874722723055431 -2.5366880770843108
5.025044054341689 3.095094244643033 2.3915319404015762
-0.38857771511860856 3.4769404580237415 6.784262680176127
-4.870721186709043 -0.5036689639424947 7.037673267836464
-4.341736676041862 -3.649148876670463 3.980884312734016
1.561027649786355 -3.2687342396036816 8.954158171376482
9.525466239045143 2.845669610744896 -3.741619493390153
-9.985343481870785 -8.223742780779144 -7.308413870266153
8.437965115847247 -16.64198603317703 -13.652691285126865
-9.2481112617246 -4.604719426260114 -1.6452012016765638
-2.4542413195740456 -3.8606843567106552 6.360400278250561
6.3275440977748785 6.906500317796387 -9.159607151907505
-7.651968084708704 -8.389201817477115 -4.283767590757642
-6.367339208122078 8.582901247867506 3.7530625584517594
1.8382663375917085 -3.4697941637723035 8.90376463260419
0.15277265138479612 -7.816679404742839 2.693344207074306
0.6650574447304373 -9.14306659733955 1.7199209827052249
13.43224940261549 2.6462758783586686 -6.647692521243538
-3.049588240007492 8.98053673223508 -1.7807146275249721
-9.540929582707172 -5.160247402920472 -3.264801758556244
13.55780488173278 1.384309681237212 -4.695967901954263
9.57898137844679 0.838110143820072 1.1959083711880003
-13.369483724939826 -6.0697144119567366 -8.526814242714316
1.0043978661831627 4.197355706510347 3.8162624690259
12.11822116245273 -9.047992180422899 0.24815693864007782
5.555276823096267 0.37703068590406585 5.522840640425879
7.464350953844858 0.3368805556785395 4.3168316699538
0.420942872787057 2.852940310186694 6.572271561074393
11.135708931461645 7.3423164314549 -12.913484409488856
5.5514649072680475 4.6351204026179635 -2.3904963448105545
-3.3665523082714843 10.280041795311984 -3.670671489989834
2.3469159641739377 -4.066471375509649 8.63794304860025
3.064832456439628 -4.459021177480298 9.87969238307709
-8.094374124027565 0.8354759102347057 4.792885743132903
11.375143652651936 -0.021028389216525736 0.3695647859785848
12.078494995487116 -9.268116657487594 0.2107618955191292
-12.724656625779312 -4.826168840342257 -6.845223415729672
-6.234515306919066 -4.865574818248724 1.0025640706110268
-5.764180730553324 -2.9758144569365887 3.801114304167917
-8.796839223892114 -1.0165465721945 2.6145100246294835
-1.8382257094878338 9.168349799587297 -3.5773268788593335
1.270554715395383 5.976544250164575 -0.2925569840868116
4.967921952824699 -1.1632891972233041 11.616468675448912
12.379564142187379 -9.039162890577144 0.10132128223776296
-8.621317329281844 -0.24857805463670593 3.1716055184018095
6.97406344048102 7.68064230660565 -10.582107174788467
-5.154186093372055 -0.4451711175065562 7.024239448518528
-8.53463789667255 -4.391130123839773 -0.6734977077259581
-3.9516327871028563 5.395406436329659 7.892256945696116
-2.3253931515549966 -1.9540874386162475 8.568012679982996
-12.126799130660816 -3.2497367617318496 -4.27344931662608
3.068828819568165 -0.5931172802680473 13.072394686807014
-7.683794650601897 -8.547724370421596 -4.522457023742903
-2.944996773047132 6.967030480778785 4.056414958076399
12.809513098270584 -3.098516610066915 5.726848967715224
0.42133920079879955 -8.050639957113223 2.5854021988377567
5.067840943230942 8.44610389765901 -9.977142836839098
5.146510324139918 6.869810082525456 -8.033014804583756
-0.9861097969463625 4.675643686174107 5.561578629388122
-5.982684467196164 9.138931666139674 3.39659898292047
8.863118963315907 -2.12340711560433 8.73356364444546
-4.842373821128232 6.624863610352973 5.379901526464468
3.2205081936765487 1.9498237654536508 6.22446194407969
-12.96706171173017 -4.699413831050972 -6.548411589313262
-11.966191664529145 -2.217623834672809 -2.5133591668371884
-0.3262425544247082 3.3488686020747 7.026713220835631
-9.561161473390994 6.581914070492096 9.286867564485842
-3.393921348128663 -2.633929895884162 5.996593103096585
0.6047115037536209 10.059049698997056 -9.578758231972158
-13.757097473813229 -0.8397910416133341 -2.6353077348817453
-10.98115607731576 -8.066568834576785 -7.603025803198364
8.894678780364925 2.7499295103849395 -3.395703744026082
-9.743170677797078 -4.073856986047867 -1.7527105472143998
6.411429126158864 7.100184753778439 -9.208085321993506
0.7448196073871407 -4.0271094537939085 7.929756847775239
11.010297563381402 -8.947303377417521 -0.21846624388313854
9.497024394547212 2.299797655558984 -3.2690407750620643
9.889888730828616 -0.7450863685827491 3.349770193567336
-9.58999180077341 4.294660582754589 6.377805983788961
-0.11861620263720454 -8.693496113486232 1.4686869342073654
0.22374529302518778 -5.992159181373006 4.9076295269113315
4.82764184525019 1.6537073954083792 4.839650591965851
5.087778660086202 -1.0475292475650253 11.50976215210067
-1.0630775907885712 11.577613345200016 -9.581090198685377
3.26493688111446 4.513266048857763 -1.0177333951547576
9.779555895208214 -0.704755304358957 3.499534519172835
-7.733866359437953 -1.5651511295340093 3.503996171467144
0.3399444923467329 1.4518403146235526 11.894069753815412
2.588250568577042 2.8883613801992385 5.104047273517322
-10.498393508381845 3.460002876781966 5.125401053604019
-15.190240544509761 -4.376399295770222 -9.313155559507042
-13.38106190267834 -6.223734793616939 -8.648352891399073
-0.4785724753791124 11.98491331367588 -11.096267216542815
2.218501051791153 6.639749679909075 -2.2678918311000595
11.648716562064195 -9.412809484658036 0.14857595871800514
3.476922501576377 5.204398358019953 -1.6884269099983966
-2.5741053718089093 8.608306676637858 -1.90729454970158
0.6862083284569762 -12.976836880290675 -1.6228827323158568
1.0887436034090636 0.606274652317598 13.399340070541331
9.503275451964011 6.978889986915334 -11.732468711121937
-7.739059300959436 1.2422498345972748 5.804042836433632
8.079775409917795 -0.12104679502018219 4.354198453754948
-12.814368067457584 2.218648578462248 2.0706158798088166
0.6083700162831873 0.11373034665083472 14.02600039288094
-10.748881078780311 1.135863366051369 2.1966270632004887
-9.001075718673471 -4.7238845380018 -1.4073163190343798
-7.74517268848085 -3.0770019199712593 1.9877575028431
-1.5947808367826917 -14.604109970631383 -6.380679134546885
-0.6139258710577407 5.099088690002643 5.143706236744279
-4.562093384056212 8.231684954821949 2.906836257773578
8.316919280336757 -16.756704492724698 -13.555818866599727
0.9099754289515378 1.534332013201821 12.66690721955896
3.8777873771383393 -4.240451816573319 10.931778267468234
-15.926521691563252 -4.229265740587478 -9.597398618507068
-8.710846215317684 0.1916312779991285 2.8798733615699406
8.381013507021455 3.3644508356093135 -3.0223866034200024
5.2555648922278735 6.934694249734516 -8.516904915959676
-0.10958319729129083 10.359556871425545 -8.625294604772165
8.15624944044947 2.2505349293902497 -0.6034322793969549
-10.995486197475572 0.8672333681604438 1.988765953857368
-1.5963854536639335 11.47005528017931 -8.607677953868468
-8.701191254942545 -1.834451881585304 1.6241320615485062
1.9226278386148112 8.88496197020436 -7.094570903412451
4.457327243680243 2.7103212509089456 3.69693798794445
-9.716916460176508 0.2326542701661715 2.0238503877635035
-0.7764910696681557 4.909557800600198 5.179288194148597
-7.143075027115334 -9.132170505969244 -5.533574400708889
6.178562199742865 0.23203291530213718 5.4573074798932915
-1.8552570284421939 -0.33918428953804647 10.695944250102203
-7.083975242365464 -2.9687781646315465 3.137274700113505
6.675321409905815 4.153822449598078 -2.0226205828130195
-2.3976653300848985 14.294256294369223 -12.6737538154235
5.534459813320629 6.880055187957271 -8.817823238854478
-4.003727891525985 6.962731572401664 4.202447081518369
14.12740947638153 -11.707529606322115 -6.601222079211925
6.250723005459307 1.3518668068517514 3.8549137490585146
2.594157441531272 9.173862769844789 -7.930407737807986
-8.41875044639261 -1.5989965211826433 2.346740932072909
-2.1314898852582718 -14.205204768475554 -6.11083607085117
9.89846854555775 -1.6522975230668253 6.009592734414587
9.890050671549144 0.620972291106233 1.0677033723003273
12.578071436428443 -8.99446402075043 0.04398329269383651
9.655371844352995 6.1332828164362825 -12.142553891397865
8.129732133164344 3.3739859700414296 -3.387549910811713
1.5546931534964228 -7.2213252058563135 4.502794244263774
-9.830647162783524 4.612041756936948 6.755751455391875
1.3406861796434282 -8.92746150981509 3.2252914897921388
13.301564266196046 0.6768814291694788 -4.046109246748786
6.4470468823029545 1.2802260584388419 3.7506754509270173
4.221174688854888 7.681695177492668 -7.902284335782655
-0.09063544612927758 10.80288425916905 -10.059354193144323
-5.511674587829981 -0.32783294923200407 7.000228484999716
-7.844321222668072 2.4676266583717394 6.51048462705282
5.513731397539862 6.773484967814391 -8.596259724372171
5.238517195818826 8.614931758634324 -9.966358818203538
-4.762824287544138 0.9171770531920185 8.976260550022396
-1.9045159956126796 9.035302512342508 -3.5578443477964288
-2.768731683134705 8.91114728973361 -2.289621441267339
-11.52098290556516 -1.021921996221688 -1.023396841638566
1.4174861272880888 -4.095637643352998 8.019276738722134
0.9333653778032639 1.2919240634955562 12.887494320481183
9.375588961974708 1.5126477847092046 -0.13788794338929364
-1.1373505257406418 -10.727067407164732 -1.6536424142580157
4.215235462776879 4.760611711369641 -1.3725328660707061
12.064266038264511 -12.35146803193644 -9.331599409522898
12.39795453300147 -8.839035653813788 0.09909973061108703
-9.12293266239231 -2.1796794392797385 0.4375392057527832
-3.37015714460899 12.781941481631941 -8.693190432030791
-0.6078824509050778 11.805405535423429 -10.614585418460077
-6.158674566171747 -4.7095566957282236 1.1341238391258908
-6.860793876853803 4.3119991473971835 9.161858299237565
7.645696054489742 0.5312346194150892 3.9029959072791023
8.11680685974938 2.51352237500796 -1.4983767488471798
-7.083562239948393 4.244742154438975 8.95566727961095
-15.943062009321165 -3.1691726354865843 -8.54726461202883
10.014317983923933 3.3049627457380004 -4.042629513082773
0.00017429601440019873 12.39994468880813 -11.691288622662222
1.4906456642148709 -2.724442166101126 9.4885986605274
-10.218162265396394 3.4285577732911285 5.138686252380184
-0.3210752516644379 7.417833261345098 -0.5291055052767911
0.3857826327273629 -6.146676255582145 4.7826941893991295
-0.9048313026889087 1.020846244103266 13.298604046460659
-7.0315368430343455 1.2909319818562337 6.361547433224879
6.180518499932347 3.6611248000519616 -0.6105412699703546
3.396819589056929 4.6584514381230715 -1.5810008311780341
-14.414105953913918 -0.6631950674712199 -3.0156531376814177
-12.81510508375043 0.39026158250174714 -0.4748897144464755
-0.5987156152120939 -11.203529234693187 -1.9381895188571194
0.31331962915207223 0.07588428495063539 14.289120146123404
-3.5457729659221524 -2.4999419136298697 5.9134562838484825
13.842701974405717 1.191273138496458 -4.6248995531915655
-4.6390875069543265 -6.324252461641319 0.7283859070236995
9.087814573224827 2.4167307128815323 -2.955130767655351
-2.920488255091367 10.694607094009283 -4.099966696701461
-4.786139286641062 7.274432625341386 4.026072568013198
7.052334927438008 -1.4939081041387534 10.068572055010202
7.961411507234116 2.4021618135854044 -0.6948061826616379
0.5324229138853507 -0.1089610926938118 14.116740710640581
-10.721167564180615 -7.025791818380888 -6.972639114966174
1.696091639559979 -9.829739895836664 2.8113328652445153
-7.224481355899592 -8.99642139727679 -5.335888670134271
-4.263062680721479 0.4997303565326803 8.43954867357067
-3.0807584828422208 10.499153729885013 -4.055923856748694
-5.876224651541504 -7.343639740659991 -1.6959855669122792
11.218605705286718 -1.4820103084689717 3.752711618999946
-9.143836092988721 5.919805436545843 8.435911529074957
6.519660412155519 1.438114855297005 2.859910534586552
-0.05041589074679945 3.269945328039791 6.695053033689109
-1.697822262648521 4.3428449424867095 7.320192605571879
9.469502134264152 6.2491883529360495 -12.110322171055044
-2.127058727054489 6.233590859293336 4.9004469123539405
-7.9244734875617695 -4.818705446173787 -0.578112102022254
-1.0885016267382328 -11.793597947941638 -3.021041199179046
1.1062510490496318 -8.660274778783306 2.6771215824110413
-15.982731912293803 -4.348913091650497 -9.86044146777219
9.776649516058336 3.3925734510512373 -4.0822373916781896
2.829361876663356 -15.592091635171148 -9.794537117841227
-1.1085586601810922 7.180791786248691 0.44257082388126867
1.361737345942661 -2.9080210278915515 9.335239297782163
-3.2773556374426436 5.633638452852764 7.21306470669541
-5.920463610945381 6.847634823842203 6.20954940149877
-2.995792416921123 5.793759477096536 5.994158542401044
1.151640571468645 11.696046153019557 -11.40813990232202
6.266076994523789 2.49004960788982 0.991795714082219
11.104776084162708 6.2990240058708915 -11.66220219002145
8.034178733375073 4.702401247555096 -4.045280044422765
9.082794288188408 0.40464754463610614 2.641678369742046
10.759648731935464 -0.8867337519089682 3.207188175875547
8.879024617004815 -0.4086768862294771 3.9821090608465473
3.769192129988534 9.767601984190057 -10.287648424554444
-9.35629035307499 1.2487496292593567 3.060628968906681
-2.811965256024783 5.526226534710629 6.087097265601312
-16.275644721905675 -4.122458560981956 -9.567338633922835
-6.010516731470267 8.769554755121527 3.341555757215388
0.09073982473927816 7.283613998883124 -1.4185170840321684
12.495417864572238 -0.6734826713503965 0.12556491721208402
-6.008207889819254 -7.197064880589275 -1.8843578910704497
-8.298922194017827 -3.400559399420212 0.508461688570411
12.507839632169024 -11.833107944568514 -9.05913770392871
12.939552058437032 1.9249218212319463 -5.615753417416326
6.935527589469665 4.148128934124007 -2.5591959262496804
-12.363492793645134 0.8995791691993 1.1991495165797257
-11.09143192307611 -7.175464785411486 -7.357719637225145
2.893483690101838 9.340051113405574 -9.109522299021313
-12.015734823929755 -3.6341909809586825 -4.975905614562932
-6.304256781551954 10.966998162455692 -1.1261676724138698
-11.59755985572807 -1.6516040707981707 -2.037041572004975
-5.538452910182663 7.008657147402863 5.494312600595509
-2.6448971889237307 13.039505293414148 -9.642840938366412
-10.003817188123708 4.953150591418342 7.31521640654219
12.2329297438038 -0.031284122289015615 0.11488905777960254
1.687298845086391 -8.725509951858717 3.9662538937987826
4.824402652571251 -1.422428007115508 11.571998386798757
-0.5940144364715285 -10.875737389399879 -1.744596567921367
-7.303217283722109 -0.25029907633619 4.93514957644066
6.304122255248296 3.157670496938305 0.08717151630511023
-9.623968253419362 -2.828042713770944 -1.5336139934967925
1.3765854143010794 2.999256776872021 6.0656667657026055
-1.5727196079020993 13.608029251671198 -11.839536495211021
-10.841948771846011 -7.284774359564298 -7.305534204742282
-10.034278635819783 4.802001919892929 7.080061490397551
-3.8067517062695915 2.106228317258916 10.515932144152435
4.173837285582368 7.596327564300701 -7.558994750857411
-6.923360705272502 -1.6398426147746255 3.888394936053901
8.978505362199977 -2.0116226664167205 8.599846032675664
-0.22956178857380277 10.470277687072253 -8.576028121649653
0.07265873858302167 3.257456640169012 6.45745225793971
-1.6217252621727043 9.975465096406639 -4.504755408763675
1.3811314290640222 11.61046940945143 -11.490471749715477
-8.564509012690397 -3.219666438578267 0.43671797971379556
13.765377911125313 0.8208696887729913 -4.236230097181563
11.400481388547327 -0.8114551193565896 2.213514719034936
-8.129117668106149 -5.044207771678202 -0.6752653527476672
-5.25754864496877 -0.3442899293864276 7.0684054813310935
-5.292593922303585 -1.8358456762630002 5.176460555732364
-12.229885191667554 2.1598166121663707 1.9539530055112404
0.6444787933633374 -13.2195241874814 -1.7422527811493818
11.055922646194176 6.487920737733415 -11.788216452776409
14.112308374939621 0.0020420667062056525 -2.624942105595113
-0.14810368116562322 12.209750186380989 -11.622972245418572
-2.12567857237522 0.49000277105685 10.820857986683476
-4.461130172245717 11.855094956418542 -4.343333287027584
14.160634157508923 -11.48825778659729 -6.556380070292827
-13.115480093058746 2.2499934463883458 2.079707471775104
3.140977380181585 -5.500017540647368 9.16675243774248
1.877399540334767 -0.7547630885562241 13.606645299960567
12.138987916133377 -11.569326554558582 -9.158478214469431
-1.3536188335466168 2.7605299243994423 9.260290840491972
10.600377362525727 6.249070170838613 -11.644162602582984
-5.330079402421885 11.424503474925968 -3.198783381817674
0.044759053371796226 10.296132227772391 -8.94529799693083
-6.265083755467518 -4.161947365741036 1.804600319166499
-5.222997424068092 11.183957255102523 -3.0546031304741237
-11.494274198200452 -0.8422722396177312 -0.8044902888543736
4.1711670384189405 -15.668896253592958 -10.522510838175911
-13.083276649132713 -6.124292283275615 -8.52049226589101
-3.355308468220359 9.247934217685843 -1.6832809417219365
-5.776874378148204 6.78199615689365 6.180730837269349
11.378705291409622 -8.476047025374514 -0.0027136278476371733
-13.557678060542461 0.4628408862913375 -1.3172305271422862
-7.499657529884061 4.449954447718319 8.793569990650044
-4.904642079452795 -9.842322520512315 -2.9098692645318693
-0.006149555996789669 7.589949136521023 -1.636977590156396
-7.521694344122368 -1.2114999861313365 3.8740855061329116
-5.1851619636537984 -1.548010464643535 5.480032852825543
-2.23176055783978 12.91291260706613 -10.534155661061927
8.980835913385269 -7.058849440669379 -0.5391641452291658
4.655915274974 2.1581850212355986 4.37959467288685
-11.447174100530372 -3.334920001859799 -4.202536053011435
-2.326146828944445 13.218131327770951 -10.79831804429148
0.11389648236405163 -11.566795279623204 -1.8499346920204083
-11.513517489501574 -0.30907450011557047 -0.0760155795223954
-4.70309921955736 8.285132992729398 3.096681024848826
5.274414276011036 3.0911753833053153 1.8354894229782288
11.188252989732362 -0.3466812155820132 1.7184608338114127
4.847844414519771 1.4317324481824487 5.0656822832607995
-5.609524563999032 11.26062209244879 -1.9322626996476246
5.313474135767845 6.462753015277162 -6.957446843753986
-13.251761602806766 -1.0014227637602722 -2.596863977770112
10.58249398746043 0.7752663154050544 0.2865582426087466
-7.909154495289389 2.8887062483968324 6.774518269959426
-6.802498076931797 8.372764452263466 4.615107106890774
